           1
         225          65
  -28.9049979341346       -28.8968656377798       -28.8801665035390     
  -28.8544073763827       -28.8190669539954       -28.7735947484947     
  -28.7174101996945       -28.6499019872850       -28.5704275929408     
  -28.4783131656091       -28.3728537436325       -28.2533138855679     
  -28.1189287572724       -27.9689057159226       -27.8024264221619     
  -27.6186494998555       -27.4167137495239       -27.1957419072505     
  -26.9548449267717       -26.6931267497359       -26.4096895190497     
  -26.1036391839983       -25.7740914444951       -25.4201779861260     
  -25.0410529680294       -24.6358997420609       -24.2039378037122     
  -23.7444300020154       -23.2566900659200       -22.7400905367533     
  -22.1940712283106       -21.6181483653408       -21.0119245744284     
  -20.3750999142517       -19.7074841290933       -19.0090102822587     
  -18.2797498635530       -17.5199293516822       -16.7299480271868     
  -15.9103965459031       -15.0620753607781       -14.1860114793935     
  -13.2834712294107       -12.3559656738296       -11.4052441759190     
  -10.4332706909314       -9.44217738649020       -8.43419241138225     
  -7.41154461919924       -6.37635880293834       -5.33056896935480     
  -4.27588779373586       -3.21386525666245       -2.14603596212963     
  -1.07409578344698      -1.022356940733302E-006   1.07409374185867     
   2.14603393015170        3.21386324127886        4.27588580226144     
   5.33056700893147        6.37635687997713        7.41154273900098     
   8.43419057801683        9.44217560288943        10.4332689591006     
   11.4052424971798        12.3559640490372        13.2834696591204     
   14.1860099639743        15.0620739004802        15.9103951408912     
   16.7299466775510        17.5199280574346        18.2797486246171     
   19.0090090984566        19.7074830001328        20.3750988397158     
   21.0119235537676        21.6181473978695        22.1940703132060     
   22.7400896730583        23.2566892525492        23.7444292377629     
   24.2039370872621        24.6358990719990        25.0410523428565     
   25.4201774042717        25.7740909043319        26.1036386838559     
   26.4096890572287        26.6931263245216        26.9548445364458     
   27.1957415501031        27.4167134238636        27.6186492040189     
   27.8024261545208        27.9689054748915        28.1189285413132     
   28.2533136931944        28.3728535734140        28.4783130161720     
   28.5704274629707        28.6499018755268        28.7174101049528     
   28.7735946696331        28.8190668899359        28.8544073261039     
   28.8801664660751        28.8968656122187        28.9049979196159     
   28.9050295431307        28.8974008557174        28.8825277058448     
   28.8608026873011        28.8325963997604        28.7982586831885     
   28.7581198133520        28.7124916493167        28.6616687268811     
   28.6059292944024        28.5455362894874        28.4807382565805     
   28.4117702066567        28.3388544210735        28.2622012022107     
   28.1820095738863        28.0984679347233        28.0117546677033     
   27.9220387091037        27.8294800799113        27.7342303826524     
   27.6364332664016        27.5362248625331        27.4337341935792     
   27.3290835573563        27.2223888883280        27.1137600979854     
   27.0033013958437        26.8911115924136        26.7772843846273     
   26.6619086183795        26.5450684827024        26.4268433301565     
   26.3073052675327        26.1865043625834        26.0643926403137     
   25.9404845229071        25.8125066853262        25.6714145236400     
   25.4846920273856        25.1576495697376        24.6312400029916     
   24.3127857801991        24.2298929581754        24.1885996586974     
   24.1569353508614        24.1317062693893        24.1114840333796     
   24.0952223629530        24.0821195971029        24.0715489638197     
   24.0630143797038        24.0561201802196        24.0505492557188     
   24.0460466638329        24.0424070313309        24.0394872663568     
  -31.6382357307429       -31.6421889910370       -31.6471377876798     
  -31.6532610125777       -31.6608391273446       -31.6702211639592     
  -31.6818429622744       -31.6962516431389       -31.7141397631652     
  -31.7363957318287       -31.7641845668094       -31.7991179178830     
  -31.8451443654950       -31.9401419463888       -32.2897654548208     
  -32.8947177290251       -33.3090076952824       -33.5436343828376     
  -33.7095082758140       -33.8535339577962       -33.9905928300059     
  -34.1248848895387       -34.2574503549673       -34.3884773410945     
  -34.5179412475944       -34.6457673782245       -34.7718675166209     
  -34.8961469579126       -35.0185055090863       -35.1388373864235     
  -35.2570309168094       -35.3729681926180       -35.4865247020128     
  -35.5975689365772       -35.7059619752282       -35.8115570428658     
  -35.9141990420135       -36.0137240555319       -36.1099588182981     
  -36.2027201555400       -36.2918143852974       -36.3770366822517     
  -36.4581703999310       -36.5349863480669       -36.6072420216583     
  -36.6746807781093       -36.7370309586690       -36.7940049503389     
  -36.8452981844623       -36.8905880684132       -36.9295328472103     
  -36.9617703925515       -36.9869169177736       -37.0045656186525     
  -37.0142852418705       -37.0156185854551       -37.0080809386285     
  -36.9911584723631       -36.9643065965580       -36.9269483051547     
  -36.8784725366620       -36.8182325843717       -36.7455445978508     
  -36.6596862248546       -36.5598954502749       -36.4453696956910     
  -36.3152652490349       -36.1686970982363       -36.0047392449107     
  -35.8224255736293       -35.6207513486151       -35.3986754025405     
  -35.1551230714135       -34.8889899155738       -34.5991462501835     
  -34.2844424902493       -33.9437152964587       -33.5757944905225     
  -33.1795106940093       -32.7537036345405       -32.2972310592220     
  -31.8089781984594       -31.2878677344649       -30.7328702477360     
  -30.1430151407332       -29.5174020692373       -28.8552129458757     
  -28.1557246136551       -27.4183223156433       -26.6425141047647     
  -25.8279463383513       -24.9744203774090       -24.0819105504594     
  -23.1505833339203       -22.1808175301291       -21.1732249719175     
  -20.1286709271729       -19.0482928931575       -17.9335158337158     
  -16.7860611088652       -15.6079454003872       -14.4014649744139     
  -13.1691599814881       -11.9137538826150       -10.6380656850626     
  -9.34489893445148       -8.03692220026257       -6.71656950365790     
  -5.38599931856884       -4.04714545976293       -2.70186028593294     
  -1.35209324378881      -1.335048918935418E-006   1.35209057816512     
   2.70185763391475        4.04714283084072        5.38599672236199     
   6.71656694937652        8.03691969613305        9.34489648733012     
   10.6380633003135        11.9137515642077        13.1691577322210     
   14.4014627961769        15.6079432944037        16.7860590758876     
   17.9335138741676        19.0482910072280        20.1286691148747     
   21.1732232331166        22.1808158645571        23.1505817411756     
   24.0819090300027        24.9744189285560        25.8279449602667     
   26.6425127964568        27.4183210759627        28.1557234412958     
   28.8552118393796        29.5174010270022        30.1430141610228     
   30.7328693286936        31.2878668741275        31.8089773947742     
   32.2972303100634        32.7537029377276        33.1795100473228     
   33.5757938917223        33.9437147432993        34.2844419804953     
   34.5991457816227        34.8889894860296        35.1551226787556     
   35.3986750446936        35.6207510235667        35.8224252794353     
   36.0047389797000        36.1686968602137        36.3152650364836     
   36.4453695069734        36.5598952838326        36.6596860792079     
   36.7455444715974        36.8182324761852        36.8784724452894     
   36.9269482294144        36.9643065353372        36.9911584246146     
   37.0080809033683        37.0156185617594        37.0142852288728     
   37.0045656155405        36.9869169237867        36.9617704069779     
   36.9295328693843        36.8905880977126        36.8452982203058     
   36.7940049921837        36.7370310060086        36.6746808304713     
   36.6072420786020        36.5349864091816        36.4581704648339     
   36.3770367505864        36.2918144567318        36.2027202297647     
   36.1099588950254        36.0137241344940        35.9141991229610     
   35.8115571255669        35.7059620594672        35.5975690221533     
   35.4865247887395        35.3729682803218        35.2570310053292     
   35.1388374756093        35.0185055987988        34.8961470480224     
   34.7718676070076        34.6457674687765        34.5179413382078     
   34.3884774316716        34.2574504454127        34.1248849797428     
   33.9905929197879        33.8535340467253        33.7095083627064     
   33.5436344645649        33.3090077649675        32.8947177812027     
   32.2897655217467        31.9401420469363        31.8451444722375     
   31.7991180249225        31.7641846738534        31.7363958388727     
   31.7141398702092        31.6962517501829        31.6818430693184     
   31.6702212710033        31.6608392343887        31.6532611196218     
   31.6471378947238        31.6421890980810        31.6382358377869     
  -41.6390135784241       -41.6443684780932       -41.6511187745974     
  -41.6594734578778       -41.6698178792441       -41.6826336411991     
  -41.6985261074562       -41.7182631238677       -41.7428328398898     
  -41.7735378891256       -41.8122103083332       -41.8637927658464     
  -41.9731477176847       -42.3574990080669       -43.0428061553601     
  -43.5591796766963       -43.8573484429642       -44.0566253026405     
  -44.2206737788709       -44.3727829955370       -44.5203734233212     
  -44.6655388109665       -44.8087651653935       -44.9500981071606     
  -45.0894703303412       -45.2267854397421       -45.3619367872171     
  -45.4948109517469       -45.6252880534892       -45.7532414735746     
  -45.8785374550825       -46.0010346633580       -46.1205837162776     
  -46.2370266844349       -46.3501965595747       -46.4599166892671     
  -46.5660001756340       -46.6682492357679       -46.7664545212931     
  -46.8603943943113       -46.9498341567542       -47.0345252299263     
  -47.1142042807716       -47.1885922911491       -47.2573935661493     
  -47.3202946772573       -47.3769633359742       -47.4270471933817     
  -47.4701725611002       -47.5059430492010       -47.5339381169332     
  -47.5537115326890       -47.5647897405265       -47.5666701318966     
  -47.5588192230754       -47.5406707412955       -47.5116236258201     
  -47.4710399543127       -47.4182428099400       -47.3525141107616     
  -47.2730924301685       -47.1791708453959       -47.0698948603726     
  -46.9443604591935       -46.8016123570134       -46.6406425257396     
  -46.4603890820187       -46.2597356339845       -46.0375111903391     
  -45.7924907397453       -45.5233966094631       -45.2289007089522     
  -44.9076277563124       -44.5581595727349       -44.1790405127915     
  -43.7687840770377       -43.3258807292181       -42.8488069149377     
  -42.3360352540330       -41.7860458572620       -41.1973387015868     
  -40.5684469892378       -39.8979514153613       -39.1844952779884     
  -38.4268003818513       -37.6236837125142       -36.7740748862409     
  -35.8770344094729       -34.9317728037002       -33.9376706594817     
  -32.8942996685963       -31.8014446357249       -30.6591263793873     
  -29.4676252838008       -28.2275050457000       -26.9396358591447     
  -25.6052158826817       -24.2257893228687       -22.8032588348208     
  -21.3398891844942       -19.8382982761614       -18.3014308545593     
  -16.7325097818445       -15.1349604597616       -13.5123068755770     
  -11.8680443287901       -10.2055049657406       -8.52774614095069     
  -6.83750177954439       -5.13723121580466       -3.42926624339230     
  -1.71599849088188      -1.734153122152876E-006   1.71599502854149     
   3.42926279910482        5.13722780193292        6.83749840844175     
   8.52774282437184        10.2055017142242        11.8680411512414     
   13.5123037791268        15.1349574498585        16.7325068624839     
   18.3014280285597        19.8382955454280        21.3398865502394     
   22.8032562977331        24.2257868832344        25.6052135404673     
   26.9396336140496        28.2275028971882        29.4676232311182     
   30.6591244215703        31.8014427716041        32.8942978967989     
   33.9376689784337        34.9317712116309        35.8770329044210     
   36.7740734660647        37.6236823749041        38.4267991243453     
   39.1844940979893        39.8979503101573        40.5684459560226     
   41.1973377374822        41.7860449593394        42.3360344193353     
   42.8488061405001        43.3258800120878        43.7687834142917     
   44.1790399015532        44.5581590101881        44.9076272397136     
   45.2289002356409        45.5233961768696        45.7924903453972     
   46.0375108318658        46.2597353091198        46.4603887886026     
   46.6406422617184        46.8016121204389        46.9443602482215     
   47.0698946732604        47.1791706804997        47.2730922859397     
   47.3525139857436        47.4182427027643        47.4710398636948     
   47.5116235505557        47.5406706802565        47.5588191752059     
   47.5666700962090        47.5647897160975        47.5537115186563     
   47.5339381124917        47.5059430535993        47.4701725736376     
   47.4270472134046        47.3769633628736        47.3202947104656     
   47.2573936051378        47.1885923354254        47.1142043298772     
   47.0345252834343        46.9498342142673        46.8603944554595     
   46.7664545857323        46.6682493031777        46.5660002457161     
   46.4599167617443        46.3501966341888        46.2370267609456     
   46.1205837944615        46.0010347430069        45.8785375360029     
   45.7532415555862        45.6252881364245        45.4948110354498     
   45.3619368715423        45.2267855245544        45.0894704155147     
   44.9500981925776        44.8087652509416        44.6655388965300     
   44.5203735087498        44.3727830805490        44.2206738627810     
   44.0566253837096        43.8573485171639        43.5591797369402     
   43.0428062008643        42.3574990748734        41.9731478177938     
   41.8637928725158        41.8122104153704        41.7735379961696     
   41.7428329469339        41.7182632309117        41.6985262145003     
   41.6826337482432        41.6698179862882        41.6594735649219     
   41.6511188816414        41.6443685851372        41.6390136854681     
  -54.8012105365932       -54.8084641245067       -54.8177109609732     
  -54.8291611414504       -54.8433490076498       -54.8609471613365     
  -54.8828106127691       -54.9100435131325       -54.9441098952744     
  -54.9871119981890       -55.0453124954167       -55.1718874562194     
  -55.5957624833174       -56.3632487407314       -56.9943418802619     
  -57.3738350518698       -57.6182479242921       -57.8082946806375     
  -57.9783389621375       -58.1407708331787       -58.2995555600455     
  -58.4557836631755       -58.6096658616446       -58.7611678531719     
  -58.9101896854642       -59.0566118092293       -59.2003053089821     
  -59.3411336090803       -59.4789523995323       -59.6136092115738     
  -59.7449429077387       -59.8727831290728       -59.9969497041278     
  -60.1172520182874       -60.2334883409632       -60.3454451079150     
  -60.4528961557587       -60.5556019055217       -60.6533084918970     
  -60.7457468346156       -60.8326316481165       -60.9136603854318     
  -60.9885121119408       -61.0568463043685       -61.1183015701374     
  -61.1724942819225       -61.2190171220432       -61.2574375311594     
  -61.2872960556737       -61.3081045883073       -61.3193444965803     
  -61.3204646344525       -61.3108792332579       -61.2899656693992     
  -61.2570621081753       -61.2114650257377       -61.1524266146508     
  -61.0791520830396       -60.9907968629786       -60.8864637507820     
  -60.7652000102759       -60.6259944800645       -60.4677747372174     
  -60.2894043825990       -60.0896805270113       -59.8673315720336     
  -59.6210153943749       -59.3493180569781       -59.0507531831376     
  -58.7237621404794       -58.3667151887020       -57.9779137473656     
  -57.5555939367545       -57.0979315351580       -56.6030484794466     
  -56.0690210126839       -55.4938895534713       -54.8756703281676     
  -54.2123687711137       -53.5019946620766       -52.7425789371622     
  -51.9321920822648       -51.0689639991532       -50.1511052251240     
  -49.1769293881533       -48.1448767893862       -47.0535390205137     
  -45.9016845399986       -44.6882851421295       -43.4125432476147     
  -42.0739199134591       -40.6721633917576       -39.2073379498466     
  -37.6798524862559       -36.0904882272044       -34.4404244574783     
  -32.7312608194722       -30.9650341986537       -29.1442275994149     
  -27.2717677090830       -25.3510070907262       -23.3856862712199     
  -21.3798707407040       -19.3378587632662       -17.2640591117616     
  -15.1628448696314       -13.0384011408338       -10.8945991077452     
  -8.73493945482911       -6.56260194088575       -4.38060199307460     
  -2.19199296761642      -2.247200489959719E-006   2.19198848095748     
   4.38059752978222        6.56259751680619        8.73493508568683     
   10.8945948084830        13.0383969249283        15.1628407486249     
   17.2640550950921        19.3378548583499        21.3798669531692     
   23.3856826051988        25.3510035491395        27.2717642938851     
   29.1442243117889        30.9650310391596        32.7312577881545     
   34.4404215539424        36.0904854506702        37.6798498355945     
   39.2073354236056        40.6721609881802        42.0739176304992     
   43.4125410829508        44.6882830931794        45.9016826039357     
   47.0535371942858        48.1448750697363        49.1769277716438     
   50.1511037081623        51.0689625780193        51.9321907531397     
   52.7425776961569        53.5019935052609        54.2123676945436     
   54.8756693279121        55.4938886256365        56.0690201534350     
   56.6030476850278        57.0979308019091        57.5555932611253     
   57.9779131259270        58.3667146181550        58.7237616176617     
   59.0507527050276        59.3493176206972        59.6210149971882     
   59.8673312113488        60.0896802003765        60.2894040877000     
   60.4677744718734        60.6259942422238        60.7651997980108     
   60.8864635622838        60.9907966965518        61.0791519370967     
   61.1524264877069        61.2114649164042        61.2570620151557     
   61.2899655914827        61.3108791693152        61.3204645834303     
   61.3193444574968        61.3081045602477        61.2872960377859     
   61.2574375226500        61.2190171221734        61.1724942900047     
   61.1183015855317        61.0568463264793        60.9885121402138     
   60.9136604193514        60.8326316872029        60.7457468784223     
   60.6533085400084        60.5556019575513        60.4528962113464     
   60.3454451667259        60.2334884026855        60.1172520826306     
   59.9969497708215        59.8727831978652        59.7449429783952     
   59.6136092838757        59.4789524732759        59.3411336840758     
   59.2003053850525        59.0566118862095        58.9101897632001     
   58.7611679315197        58.6096659404684        58.4557837423422     
   58.2995556394065        58.1407709125142        57.9783390409997     
   57.8082947579736        57.6182479976958        57.3738351165572     
   56.9943419299156        56.3632487801212        55.5957625498156     
   55.1718875557974        55.0453126019940        54.9871121052228     
   54.9441100023184        54.9100436201765        54.8828107198132     
   54.8609472683805        54.8433491146938        54.8291612484945     
   54.8177110680172        54.8084642315507        54.8012106436372     
  -72.1243648674145       -72.1341842379813       -72.1469224389485     
  -72.1627088434066       -72.1822947421754       -72.2066374112581     
  -72.2369777106607       -72.2749715639807       -72.3230597031640     
  -72.3892684321755       -72.5367022876904       -73.0062860413665     
  -73.8587556501952       -74.6146406317940       -75.0940402573180     
  -75.3984135887284       -75.6230233001762       -75.8153938585826     
  -75.9949523730147       -76.1687190235367       -76.3389202348033     
  -76.5061260886439       -76.6703937117759       -76.8316340383140     
  -76.9897158606386       -77.1444924862741       -77.2958074802337     
  -77.4434953930391       -77.5873814212236       -77.7272808395605     
  -77.8629983596771       -77.9943274386370       -78.1210495384601     
  -78.2429333338229       -78.3597338644548       -78.4711916284530     
  -78.5770316124895       -78.6769622546291       -78.7706743352066     
  -78.8578397909283       -78.9381104470664       -79.0111166623030     
  -79.0764658804665       -79.1337410830811       -79.1824991363383     
  -79.2222690258045       -79.2525499719255       -79.2728094191987     
  -79.2824808917910       -79.2809617084444       -79.2676105497723     
  -79.2417448716068       -79.2026381589953       -79.1495170168853     
  -79.0815580956251       -78.9978848523060       -78.8975641528695     
  -78.7796027250057       -78.6429434783917       -78.4864617169785     
  -78.3089612780278       -78.1091706445833       -77.8857390921259     
  -77.6372329462967       -77.3621320466263       -77.0588265308637     
  -76.7256140752122       -76.3606977467929       -75.9621846449362     
  -75.5280855262021       -75.0563156228886       -74.5446968746248     
  -73.9909617958817       -73.3927591974183       -72.7476619656997     
  -72.0531770805721       -71.3067580180419       -70.5058196428153     
  -69.6477556461128       -68.7299585308434       -67.7498420918207     
  -66.7048662869854       -65.5925643501021       -64.4105719590161     
  -63.1566582479120       -61.8287584369623       -60.4250078458735     
  -58.9437770542141       -57.3837079635820       -55.7437504948786     
  -54.0231996066465       -52.2217322350754       -50.3394436203297     
  -48.3768822858698       -46.3350826680695       -44.2155940460572     
  -42.0205039923320       -39.7524540512794       -37.4146447552989     
  -35.0108264152117       -32.5452714138917       -30.0227231263562     
  -27.4483164431238       -24.8274659441805       -22.1657213475728     
  -19.4685975548060       -16.7413993651506       -13.9890768085834     
  -11.2161584961427       -8.42680342567251       -5.62497224559238     
  -2.81465074081248      -2.910225257382629E-006   2.81464493031421     
   5.62496646508378        8.42679769537286        11.2161528360404     
   13.9890712376805        16.7413939006848        19.4685922117116     
   22.1657161382718        24.8274608786538        27.4483115291539     
   30.0227183698388        32.5452668191457        35.0108219852520     
   37.4146404920595        39.7524499557886        42.0205000648471     
   44.2155902861665        46.3350790747693        48.3768788576233     
   50.3394403551131        52.2217291304155        54.0231966596536     
   55.7437477022761        57.3837053217368        58.9437745591669     
   60.4250054933717        61.8287562224938        63.1566561667423     
   64.4105700062260        65.5925625206272        66.7048645756554     
   67.7498404933991        68.7299570400651        69.6477542577210     
   70.5058183515950        71.3067568188511        72.0531759683689     
   72.7476609355666        73.3927582445823        73.9909609157308     
   74.5446960627208        75.0563148749768        75.5280848382179     
   75.9621840130085        76.3606971672455        76.7256135445628     
   77.0588260458212        77.3621316040870        77.6372325433387     
   77.8857387260033        78.1091703127191        78.3089609780069     
   78.4864614465401        78.6429432354216        78.7796025075286     
   78.8975639590413        78.9978846804065        79.0815579440505     
   79.1495168841411        79.2026380436896        79.2417447724439     
   79.2676104655460        79.2809616380326        79.2824808341497     
   79.2728093733570        79.2525499369805        79.2222690009162     
   79.1824991207260        79.1337410760186        79.0764658812783     
   79.0111166703611        78.9381104617864        78.8578398117666     
   78.7706743616574        78.6769622862216        78.5770316487855     
   78.4711916690444        78.3597339089615        78.2429333818909     
   78.1210495897594        77.9943274928599        77.8629984165368     
   77.7272808987894        77.5873814825722        77.4434954562743     
   77.2958075451379        77.1444925526442        76.9897159282846     
   76.8316341070582        76.6703937814515        76.5061261590906     
   76.3389203058570        76.1687190949947        75.9949524445408     
   75.8153939294768        75.6230233689090        75.3984136522063     
   75.0940403103949        74.6146406700123        73.8587556839555     
   73.0062861072345        72.5367023866155        72.3892685386358     
   72.3230598101928        72.2749716710246        72.2369778177047     
   72.2066375183021        72.1822948492194        72.1627089504507     
   72.1469225459925        72.1341843450253        72.1243649744586     
  -94.9241613728322       -94.9374372712941       -94.9551152467669     
  -94.9770538764648       -95.0043322570152       -95.0383547774506     
  -95.0810090512976       -95.1351697326599       -95.2112292566463     
  -95.3841572517358       -95.9072410517587       -96.8493173084042     
  -97.7379715426593       -98.3352853696752       -98.7169349461935     
  -98.9876160320490       -99.2087853309123       -99.4089365629610     
  -99.5996523874937       -99.7851065093466       -99.9665817564134     
  -100.144352611639       -100.318377103682       -100.488519748949     
  -100.654614842319       -100.816482506600       -100.973931915150     
  -101.126761412216       -101.274757951555       -101.417696367973     
  -101.555338575148       -101.687432702163       -101.813712167014     
  -101.933894682922       -102.047681192619       -102.154754725470     
  -102.254779171886       -102.347397969198       -102.432232692738     
  -102.508881545529       -102.576917739561       -102.635887761251     
  -102.685309513239       -102.724670324297       -102.753424818703     
  -102.770992636080       -102.776755992360       -102.770057072323     
  -102.750195243993       -102.716424085279       -102.667948213488     
  -102.603919908995       -102.523435525402       -102.425531680172     
  -102.309181222130       -102.173288975540       -102.016687265041     
  -101.838131231667       -101.636293957900       -101.409761429428     
  -101.157027373356       -100.876488027238       -100.566436910765     
  -100.225059692259       -99.8504292653327       -99.4405011768658     
  -98.9931095753862       -98.5059638781542       -97.9766463846665     
  -97.4026110923658       -96.7811839952531       -96.1095651657368     
  -95.3848329321331       -94.6039504664760       -93.7637750876509     
  -92.8610705617310       -91.8925226439402       -90.8547580550084     
  -89.7443670201386       -88.5579294238704       -87.2920445524444     
  -85.9433643113109       -84.5086297239949       -82.9847104441465     
  -81.3686469487153       -79.6576950284140       -77.8493721510666     
  -75.9415052401570       -73.9322793778432       -71.8202868988482     
  -69.6045762766670       -67.2847001028765       -64.8607613105097     
  -62.3334565815761       -59.7041155978337       -56.9747344373688     
  -54.1480009851201       -51.2273097126423       -48.2167625916396     
  -45.1211522444936       -41.9459227437817       -38.6971028961610     
  -35.3812067734353       -32.0050975239491       -28.5758145496711     
  -25.1003727803715       -21.5855570658050       -18.0377524857802     
  -14.4628641592222       -10.8663721991248       -7.25352299364346     
  -3.62958112200727      -3.770457180237068E-006   3.62957359386365     
   7.25351550394190        10.8663647736832        14.4628568235054     
   18.0377452640187        21.5855499800899        25.1003658500219     
   28.5758077909747        32.0050909502212        35.3812003952752     
   38.6970967217908        41.9459167793888        45.1211464945371     
   48.2167570591062        51.2273043992530        54.1479958914943     
   56.9747295631544        59.7041109418117        62.3334521417449     
   64.8607570841558        67.2846960866356        69.6045724665785     
   71.8202832904074        73.9322759660517        75.9415020195734     
   77.8493691158588        79.6576921724123        81.3686442654674     
   82.9847079269733        84.5086273660464        85.9433621056216     
   87.2920424919877        88.5579275016094        89.7443652290747     
   90.8547563882257        91.8925210946448        92.8610691232862     
   93.7637737536067        94.6039492305938        95.3848317884050     
   96.1095641084005        96.7811830188019        97.4026101915554     
   97.9766455545171        98.5059631139504        98.9931088726739     
   99.4405005314471        99.8504286732592        100.225059149824     
   100.566436414491        100.876487573872        101.157026959855     
   101.409761052952        101.636293615796        101.838130921463     
   102.016686984434        102.173288722385        102.309180994432     
   102.425531476074        102.523435343177        102.603919747040     
   102.667948070310        102.716423959492        102.750195134310     
   102.770056977547        102.776755911381        102.770992567862     
   102.753424762288        102.724670278793        102.685309477817     
   102.635887735139        102.576917722042        102.508881535936     
   102.432232690451        102.347397973639        102.254779182517     
   102.154754741789        102.047681214160        101.933894709249     
   101.813712197722        101.687432736872        101.555338613505     
   101.417696409648        101.274757996240        101.126761459622     
   100.973931965008        100.816482558658        100.654614896340     
   100.488519804713        100.318377160981        100.144352670276     
   99.9665818161938        99.7851065700585        99.5996524488453     
   99.4089366244342        99.2087853914616        98.9876160896029     
   98.7169349971026        98.3352854090448        97.7379715688339     
   96.8493173367829        95.9072411165506        95.3841573498513     
   95.2112293629565        95.1351698396815        95.0810091583415     
   95.0383548844946        95.0043323640592        94.9770539835088     
   94.9551153538109        94.9374373783382        94.9241614798763     
  -124.932518228808       -124.950440782250       -124.975211597666     
  -125.006026196396       -125.044487118022       -125.092766551890     
  -125.154308601531       -125.242687367202       -125.447035688933     
  -126.033338426331       -127.072181116153       -128.100613088603     
  -128.832371375422       -129.310076814699       -129.641215464406     
  -129.900213119343       -130.126126812740       -130.336739713423     
  -130.539262914294       -130.736256109896       -130.928450306418     
  -131.115933220607       -131.298586952572       -131.476229230501     
  -131.648653357017       -131.815638094914       -131.976949357322     
  -132.132339891751       -132.281548499189       -132.424299114308     
  -132.560299803815       -132.689241688068       -132.810797781875     
  -132.924621748576       -133.030346560876       -133.127583061430     
  -133.215918415670       -133.294914448912       -133.364105859205     
  -133.422998296890       -133.471066301256       -133.507751084117     
  -133.532458149568       -133.544554738596       -133.543367086693     
  -133.528177482096       -133.498221111831       -133.452682682391     
  -133.390692801709       -133.311324109042       -133.213587139761     
  -133.096425912668       -132.958713228782       -132.799245672377     
  -132.616738307982       -132.409819070948       -132.177022854686     
  -131.916785304777       -131.627436339560       -131.307193428586     
  -130.954154675182       -130.566291767485       -130.141442884168     
  -129.677305666836       -129.171430400912       -128.621213580493     
  -128.023892069861       -127.376538114063       -126.676055492183     
  -125.919177147617       -125.102464667767       -124.222310018163     
  -123.274939960148       -122.256423593400       -121.162683461679     
  -119.989510639183       -118.732584173779       -117.387495201090     
  -115.949775960329       -114.414933841173       -112.778490474397     
  -111.036025752987       -109.183226541124       -107.215939702448     
  -105.130228962267       -102.922435015060       -100.589238200268     
  -98.1277229939758       -95.5354434958008       -92.8104890194718     
  -89.9515488093162       -86.9579747885566       -83.8298410839240     
  -80.5679988513768       -77.1741246396026       -73.6507601655240     
  -70.0013409367663       -66.2302106390279       -62.3426176107140     
  -58.3446890584930       -54.2433779671505       -50.0463770840252     
  -45.7619943513130       -41.3989856741786       -36.9663455968224     
  -32.4730663934632       -27.9278924760256       -23.3391174036192     
  -18.7144853954723       -14.0612500261609       -9.38639153325810     
  -4.69690564465693      -4.889870899047585E-006   4.69689588132838     
   9.38638181929826        14.0612403946342        18.7144758789412     
   23.3391080330971        27.9278832799062        32.4730573967642     
   36.9663368208612        41.3989771366178        45.7619860664355     
   50.0463690631098        54.2433702188571        58.3446815892111     
   62.3426104248589        66.2302037392850        70.0013343242900     
   73.6507538401018        77.1741185997910        80.5679930946170     
   83.8298356066421        86.9579695862540        89.9515438766531     
   92.8104843503471        95.5354390834305        98.1277188309705     
   100.589234278713        102.922431326593        105.130225498162     
   107.215936453693        109.183223498499        111.036022907146     
   112.778487815939        114.414931360714        115.949773648562     
   117.387493048848        118.732582172088        119.989508779299     
   121.162681735136        122.256421992029        123.274938476108     
   124.222308643955        125.102463396246        125.919175971998     
   126.676054406038        127.376537111324        128.023891144812     
   128.621212727759        129.171429615449        129.677304943921     
   130.141442219383        130.566291156704        130.954154114555     
   131.307192914524        131.627435868722        131.916784874054     
   132.177022461186        132.409818711984        132.616737981056     
   132.799245375172        132.958712959143        133.096425668598     
   133.213586919404        133.311323910677        133.390692623735     
   133.452682523327        133.498220970298        133.528177356817     
   133.543366976479        133.544554642344        133.532458066253     
   133.507751012785        133.471066241021        133.422998246928     
   133.364105818749        133.294914417248        133.215918392132     
   133.127583045398        133.030346551773        132.924621745861     
   132.810797785046        132.689241696655        132.560299817379     
   132.424299132438        132.281548521501        132.132339917887     
   131.976949386944        131.815638127707        131.648653392686     
   131.476229268769        131.298586993178        131.115933263306     
   130.928450350971        130.736256156061        130.539262961783     
   130.336739761803        130.126126861236        129.900213166490     
   129.641215507617        129.310076850074        128.832371399036     
   128.100613102197        127.072181139047        126.033338489472     
   125.447035786039        125.242687473318        125.154308708541     
   125.092766658934        125.044487225066        125.006026303440     
   124.975211704710        124.950440889295        124.932518335852     
  -164.429436143148       -164.453611441466       -164.488754479221     
  -164.532663349800       -164.587856902345       -164.658543621591     
  -164.762578766393       -165.005963646888       -165.667603978178     
  -166.813599610619       -167.989369959284       -168.870525981989     
  -169.463470804090       -169.871824957461       -170.180447627731     
  -170.439498206000       -170.674409153694       -170.896688152696     
  -171.110961359298       -171.318812483260       -171.520622298080     
  -171.716344334179       -171.905791681213       -172.088729377180     
  -172.264900260764       -172.434031051219       -172.595833015938     
  -172.750001288203       -172.896213843679       -173.034130346232     
  -173.163390897063       -173.283614686920       -173.394398544836     
  -173.495315375371       -173.585912475585       -173.665709722325     
  -173.734197619710       -173.790835196002       -173.835047738293     
  -173.866224352689       -173.883715336839       -173.886829350884     
  -173.874830372039       -173.846934417240       -173.802306017449     
  -173.740054426514       -173.659229546775       -173.558817553071     
  -173.437736196484       -173.294829769012       -173.128863710674     
  -172.938518841300       -172.722385200672       -172.478955482974     
  -172.206618054876       -171.903649551410       -171.568207050358     
  -171.198319834648       -170.791880763736       -170.346637289613     
  -169.860182171498       -169.329943966075       -168.753177397750     
  -168.126953746317       -167.448151427929       -166.713446989283     
  -165.919306784212       -165.061979655471       -164.137491001153     
  -163.141638662639       -162.069991126599       -160.917888583681     
  -159.680447427040       -158.352568800091       -156.928951809934     
  -155.404112006310       -153.772405681620       -152.028060473059     
  -150.165212642173       -148.177951271727       -146.060369458232     
  -143.806622397158       -141.410992064647       -138.867958003800     
  -136.172273534498       -133.319046531042       -130.303823756862     
  -127.122677611077       -123.772294024309       -120.250060131939     
  -116.554150239131       -112.683608457211       -108.638426218362     
  -104.419612649276       -100.029255492021       -95.4705698939059     
  -90.7479319435361       -85.8668933047461       -80.8341726905024     
  -75.6576192284609       -70.3461420428575       -64.9095997941648     
  -59.3586439857317       -53.7045116774586       -47.9587687639742     
  -42.1330166114368       -36.2385940173954       -30.2863302682622     
  -24.2864220979243       -18.2484964428699       -12.1818607630167     
  -6.09583893277489      -6.349850779071646E-006   6.09582625422851     
   12.1818481480648        18.2484839340141        24.2864097369736     
   30.2863180950713        36.2385820685771        42.1330049194459     
   47.9587573566999        53.7045005782516        59.3586332137057     
   64.9095893646190        70.3461319677173        75.6576095166799     
   80.8341633484091        85.8668843363346        90.7479233507084     
   95.4705616766768        100.029247648693        104.419605176594     
   108.638419111649        112.683601710500        116.554143845279     
   120.250054082751        123.772288310649        127.122672222982     
   130.303818683660        133.319041761468        136.172269056805     
   138.867953805882        141.410988134141        143.806618721557     
   146.060366024987        148.177948068340        150.165209656287     
   152.028057692530        153.772403094591        155.404109601263     
   156.928949575742        158.352566726050        159.680445502904     
   160.917886799675        162.069989473434        163.141637131515     
   164.137489583758        165.061978343977        165.919305571260     
   166.713445867972        167.448150391798        168.126952789330     
   168.753176514272        169.329943150854        169.860181419644     
   170.346636596579        170.791880125295        171.198319246873     
   171.568206509604        171.903649054295        172.206617598262     
   172.478955063952        172.722384816544        172.938518489563     
   173.128863389010        173.294829475270        173.437735928670     
   173.558817309335        173.659229325400        173.740054225909     
   173.802305836134        173.846934253844        173.874830225286     
   173.886829219588        173.883715219899        173.866224249078     
   173.835047647058        173.790835116254        173.734197550621     
   173.665709663122        173.585912425548        173.495315333827     
   173.394398511158        173.283614660519        173.163390877391     
   173.034130332775        172.896213835956        172.750001285762     
   172.595833018357        172.434031058102        172.264900271738     
   172.088729391894        171.905791699339        171.716344355406     
   171.520622322112        171.318812509805        171.110961388039     
   170.896688183227        170.674409185382        170.439498237742     
   170.180447657630        169.871824982560        169.463470820685     
   168.870525987787        167.989369959606        166.813599627497     
   165.667604038944        165.005963742725        164.762578872256     
   164.658543728586        164.587857009388        164.532663456844     
   164.488754586265        164.453611548510        164.429436250192     
  -216.416786249149       -216.449425924449       -216.500069995540     
  -216.563922037179       -216.646160995081       -216.770399103466     
  -217.062675176672       -217.814860140281       -219.082427077237     
  -220.415370709312       -221.460092281902       -222.187237615004     
  -222.691213753182       -223.063898962891       -223.366014206730     
  -223.631575763567       -223.877604537852       -224.111744748871     
  -224.337005450793       -224.554339710155       -224.763883744859     
  -224.965479797759       -225.158869103563       -225.343753657901     
  -225.519813122017       -225.686708396731       -225.844081529462     
  -225.991554677911       -226.128728801160       -226.255182214439     
  -226.370469025793       -226.474117449840       -226.565627989270     
  -226.644471473363       -226.710086941828       -226.761879361407     
  -226.799217161670       -226.821429575473       -226.827803768456     
  -226.817581740861       -226.789956983816       -226.744070871036     
  -226.679008765714       -226.593795821140       -226.487392452463     
  -226.358689455819       -226.206502750084       -226.029567715581     
  -225.826533103470       -225.595954489198       -225.336287243529     
  -225.045878995441       -224.722961562706       -224.365642328654     
  -223.971895047622       -223.539550067417       -223.066283965174     
  -222.549608603805       -221.986859630486       -221.375184456981     
  -220.711529784766       -219.992628766833       -219.214987933254     
  -218.374874049987       -217.468301130342       -216.491017876253     
  -215.438495891859       -214.305919083934       -213.088174741041     
  -211.779846863290       -210.375212393960       -208.868241078303     
  -207.252599738205       -205.521661797493       -203.668522914735     
  -201.686023571354       -199.566779416516       -197.303220081501     
  -194.887637042419       -192.312240931230       -189.569228474592     
  -186.650858985086       -183.549540050213       -180.257921773800     
  -176.768998635900       -173.076217763784       -169.173592158516     
  -165.055817204592       -160.718388603931       -156.157719713375     
  -151.371256113856       -146.357585081722       -141.116537448423     
  -135.649279104193       -129.958389108310       -124.047921001394     
  -117.923443466879       -111.592055953501       -105.062374242080     
  -98.3444802190106       -91.4498293548985       -84.3911087898100     
  -77.1820390940722       -69.8371150202477       -62.3712871656227     
  -54.7996003072862       -47.1368269261661       -39.3971626587325     
  -31.5940705387055       -23.7403477989130       -15.8484174483840     
  -7.93072347957086      -8.257318361647539E-006   7.93070699228810     
   15.8484010432910        23.7403315308454        31.5940544615564     
   39.3971468239134        47.1368113810394        54.7995850940428     
   62.3712723207649        69.8371005745934        77.1820250730887     
   84.3910952140970        91.4498162406984        98.3444675786789     
   105.062362084496        111.592044284416        117.923432289214     
   124.047910315494        129.958378912172        135.649269393666     
   141.116528217393        146.357576322291        151.371247816507     
   156.157711867141        160.718381196558        165.055810222704     
   169.173585587778        173.076211589071        176.768992841455     
   180.257916343397        183.549534967315        186.650854232991     
   189.569224036572        192.312236790662        194.887633182901     
   197.303216486955        199.566776071278        201.686020460246     
   203.668520023128        205.521659111352        207.252597244124     
   208.868238763527        210.375210246396        211.779844871510     
   213.088172894276        214.305917372064        215.438494305393     
   216.491016406312        217.468299768630        218.374872788771     
   219.214986765328        219.992627685496        220.711528783790     
   221.375183530585        221.986858773306        222.549607810866     
   223.066283231866        223.539549389468        223.971894421074     
   224.365641749842        224.722961028236        225.045878502169     
   225.336286788543        225.595954069800        225.826532717161     
   226.029567360043        226.206502423169        226.358689155535     
   226.487392176959        226.593795568700        226.679008534742     
   226.744070660051        226.789956791439        226.817581565810     
   226.827803609536        226.821429431571        226.799217031749     
   226.761879244499        226.710086837031        226.644471379831     
   226.565627906215        226.474117376524        226.370468961525     
   226.255182158571        226.128728753086        225.991554637061     
   225.844081495301        225.686708368756        225.519813099757     
   225.343753640910        225.158869091424        224.965479790076     
   224.763883741256        224.554339710269        224.337005454254     
   224.111744755256        223.877604546586        223.631575773754     
   223.366014216909        223.063898970801        222.691213755766     
   222.187237609248        221.460092267637        220.415370695270     
   219.082427087072        217.814860197759        217.062675270902     
   216.770399208995        216.646161102051        216.563922144221     
   216.500070102584        216.449426031493        216.416786356193     
  -284.847573011573       -284.891852752872       -284.966293913044     
